3 15231 15226 15462
3 15231 15462 15460
3 15461 15460 15463
3 15461 15463 15464
3 15460 15462 15465
3 15460 15465 15463
3 15224 15212 15445
3 15224 15445 15466
3 15466 15445 15448
3 15466 15448 15467
3 15226 15224 15466
3 15226 15466 15462
3 15462 15466 15467
3 15462 15467 15465
3 15457 15468 15469
3 15457 15469 15458
3 15468 15470 15471
3 15468 15471 15469
3 15458 15469 15467
3 15458 15467 15448
3 15469 15471 15465
3 15469 15465 15467
3 15472 15473 15474
3 15472 15474 15475
3 15475 15474 15464
3 15475 15464 15463
3 15470 15472 15475
3 15470 15475 15471
3 15471 15475 15463
3 15471 15463 15465
3 15015 15245 15476
3 15015 15476 15254
3 15245 15242 15477
3 15245 15477 15476
3 15254 15476 15478
3 15254 15478 15256
3 15476 15477 15479
3 15476 15479 15478
3 15240 15228 15461
3 15240 15461 15480
3 15480 15461 15464
3 15480 15464 15481
3 15242 15240 15480
3 15242 15480 15477
3 15477 15480 15481
3 15477 15481 15479
3 15473 15482 15483
3 15473 15483 15474
3 15482 15484 15485
3 15482 15485 15483
3 15474 15483 15481
3 15474 15481 15464
3 15483 15485 15479
3 15483 15479 15481
3 15486 15258 15261
3 15486 15261 15487
3 15487 15261 15256
3 15487 15256 15478
3 15484 15486 15487
3 15484 15487 15485
3 15485 15487 15478
3 15485 15478 15479
3 15488 15489 15490
3 15488 15490 15491
3 15489 15492 15493
3 15489 15493 15490
3 15491 15490 15494
3 15491 15494 15495
3 15490 15493 15496
3 15490 15496 15494
3 15497 15498 15499
3 15497 15499 15500
3 15500 15499 15501
3 15500 15501 15502
3 15492 15497 15500
3 15492 15500 15493
3 15493 15500 15502
3 15493 15502 15496
3 15503 15504 15505
3 15503 15505 15506
3 15504 15507 15508
3 15504 15508 15505
3 15506 15505 15502
3 15506 15502 15501
3 15505 15508 15496
3 15505 15496 15502
3 15509 15510 15511
3 15509 15511 15512
3 15512 15511 15495
3 15512 15495 15494
3 15507 15509 15512
3 15507 15512 15508
3 15508 15512 15494
3 15508 15494 15496
3 15513 15514 15515
3 15513 15515 15516
3 15514 15517 15518
3 15514 15518 15515
3 15516 15515 15519
3 15516 15519 15520
3 15515 15518 15521
3 15515 15521 15519
3 15522 15488 15491
3 15522 15491 15523
3 15523 15491 15495
3 15523 15495 15524
3 15517 15522 15523
3 15517 15523 15518
3 15518 15523 15524
3 15518 15524 15521
3 15510 15525 15526
3 15510 15526 15511
3 15525 15527 15528
3 15525 15528 15526
3 15511 15526 15524
3 15511 15524 15495
3 15526 15528 15521
3 15526 15521 15524
3 15529 15530 15531
3 15529 15531 15532
3 15532 15531 15520
3 15532 15520 15519
3 15527 15529 15532
3 15527 15532 15528
3 15528 15532 15519
3 15528 15519 15521
3 15533 15534 15535
3 15533 15535 15536
3 15534 15537 15538
3 15534 15538 15535
3 15536 15535 15539
3 15536 15539 15540
3 15535 15538 15541
3 15535 15541 15539
3 15542 15513 15516
3 15542 15516 15543
3 15543 15516 15520
3 15543 15520 15544
3 15537 15542 15543
3 15537 15543 15538
3 15538 15543 15544
3 15538 15544 15541
3 15530 15545 15546
3 15530 15546 15531
3 15545 15547 15548
3 15545 15548 15546
3 15531 15546 15544
3 15531 15544 15520
3 15546 15548 15541
3 15546 15541 15544
3 15549 15550 15551
3 15549 15551 15552
3 15552 15551 15540
3 15552 15540 15539
3 15547 15549 15552
3 15547 15552 15548
3 15548 15552 15539
3 15548 15539 15541
3 15553 15554 15555
3 15553 15555 15556
3 15554 15557 15558
3 15554 15558 15555
3 15556 15555 15559
3 15556 15559 15560
3 15555 15558 15561
3 15555 15561 15559
3 15562 15533 15536
3 15562 15536 15563
3 15563 15536 15540
3 15563 15540 15564
3 15557 15562 15563
3 15557 15563 15558
3 15558 15563 15564
3 15558 15564 15561
3 15550 15565 15566
3 15550 15566 15551
3 15565 15567 15568
3 15565 15568 15566
3 15551 15566 15564
3 15551 15564 15540
3 15566 15568 15561
3 15566 15561 15564
3 15569 15570 15571
3 15569 15571 15572
3 15572 15571 15560
3 15572 15560 15559
3 15567 15569 15572
3 15567 15572 15568
3 15568 15572 15559
3 15568 15559 15561
3 15573 15574 15575
3 15573 15575 15576
3 15574 15577 15578
3 15574 15578 15575
3 15576 15575 15579
3 15576 15579 15580
3 15575 15578 15581
3 15575 15581 15579
3 15582 15583 15584
3 15582 15584 15585
3 15585 15584 15586
3 15585 15586 15587
3 15577 15582 15585
3 15577 15585 15578
3 15578 15585 15587
3 15578 15587 15581
3 15588 15589 15590
3 15588 15590 15591
3 15589 15592 15593
3 15589 15593 15590
3 15591 15590 15587
3 15591 15587 15586
3 15590 15593 15581
3 15590 15581 15587
3 15594 15595 15596
3 15594 15596 15597
3 15597 15596 15580
3 15597 15580 15579
3 15592 15594 15597
3 15592 15597 15593
3 15593 15597 15579
3 15593 15579 15581
3 15598 15599 15600
3 15598 15600 15601
3 15599 15602 15603
3 15599 15603 15600
3 15601 15600 15604
3 15601 15604 15605
3 15600 15603 15606
3 15600 15606 15604
3 15607 15573 15576
3 15607 15576 15608
3 15608 15576 15580
3 15608 15580 15609
3 15602 15607 15608
3 15602 15608 15603
3 15603 15608 15609
3 15603 15609 15606
3 15595 15610 15611
3 15595 15611 15596
3 15610 15612 15613
3 15610 15613 15611
3 15596 15611 15609
3 15596 15609 15580
3 15611 15613 15606
3 15611 15606 15609
3 15614 15615 15616
3 15614 15616 15617
3 15617 15616 15605
3 15617 15605 15604
3 15612 15614 15617
3 15612 15617 15613
3 15613 15617 15604
3 15613 15604 15606
3 15618 15619 15620
3 15618 15620 15621
3 15619 15622 15623
3 15619 15623 15620
3 15621 15620 15624
3 15621 15624 15625
3 15620 15623 15626
3 15620 15626 15624
3 15627 15598 15601
3 15627 15601 15628
3 15628 15601 15605
3 15628 15605 15629
3 15622 15627 15628
3 15622 15628 15623
3 15623 15628 15629
3 15623 15629 15626
3 15615 15630 15631
3 15615 15631 15616
3 15630 15632 15633
3 15630 15633 15631
3 15616 15631 15629
3 15616 15629 15605
3 15631 15633 15626
3 15631 15626 15629
3 15634 15635 15636
3 15634 15636 15637
3 15637 15636 15625
3 15637 15625 15624
3 15632 15634 15637
3 15632 15637 15633
3 15633 15637 15624
3 15633 15624 15626
3 15638 15639 15640
3 15638 15640 15641
3 15639 15642 15643
3 15639 15643 15640
3 15641 15640 15644
3 15641 15644 15645
3 15640 15643 15646
3 15640 15646 15644
3 15647 15618 15621
3 15647 15621 15648
3 15648 15621 15625
3 15648 15625 15649
3 15642 15647 15648
3 15642 15648 15643
3 15643 15648 15649
3 15643 15649 15646
3 15635 15650 15651
3 15635 15651 15636
3 15650 15652 15653
3 15650 15653 15651
3 15636 15651 15649
3 15636 15649 15625
3 15651 15653 15646
3 15651 15646 15649
3 15654 15655 15656
3 15654 15656 15657
3 15657 15656 15645
3 15657 15645 15644
3 15652 15654 15657
3 15652 15657 15653
3 15653 15657 15644
3 15653 15644 15646
3 15658 15659 15660
3 15658 15660 15661
3 15659 15662 15663
3 15659 15663 15660
3 15661 15660 15664
3 15661 15664 15665
3 15660 15663 15666
3 15660 15666 15664
3 15667 15638 15641
3 15667 15641 15668
3 15668 15641 15645
3 15668 15645 15669
3 15662 15667 15668
3 15662 15668 15663
3 15663 15668 15669
3 15663 15669 15666
3 15655 15670 15671
3 15655 15671 15656
3 15670 15672 15673
3 15670 15673 15671
3 15656 15671 15669
3 15656 15669 15645
3 15671 15673 15666
3 15671 15666 15669
3 15674 15675 15676
3 15674 15676 15677
3 15677 15676 15665
3 15677 15665 15664
3 15672 15674 15677
3 15672 15677 15673
3 15673 15677 15664
3 15673 15664 15666
3 15678 15679 15680
3 15678 15680 15681
3 15679 15682 15683
3 15679 15683 15680
3 15681 15680 15684
3 15681 15684 15685
3 15680 15683 15686
3 15680 15686 15684
3 15687 15658 15661
3 15687 15661 15688
3 15688 15661 15665
3 15688 15665 15689
3 15682 15687 15688
3 15682 15688 15683
3 15683 15688 15689
3 15683 15689 15686
3 15675 15690 15691
3 15675 15691 15676
3 15690 15692 15693
3 15690 15693 15691
3 15676 15691 15689
3 15676 15689 15665
3 15691 15693 15686
3 15691 15686 15689
3 15694 15695 15696
3 15694 15696 15697
3 15697 15696 15685
3 15697 15685 15684
3 15692 15694 15697
3 15692 15697 15693
3 15693 15697 15684
3 15693 15684 15686
3 15698 15699 15700
3 15698 15700 15701
3 15699 15702 15703
3 15699 15703 15700
3 15701 15700 15704
3 15701 15704 15705
3 15700 15703 15706
3 15700 15706 15704
3 15707 15678 15681
3 15707 15681 15708
3 15708 15681 15685
3 15708 15685 15709
3 15702 15707 15708
3 15702 15708 15703
3 15703 15708 15709
3 15703 15709 15706
3 15695 15710 15711
3 15695 15711 15696
3 15710 15712 15713
3 15710 15713 15711
3 15696 15711 15709
3 15696 15709 15685
3 15711 15713 15706
3 15711 15706 15709
3 15714 15715 15716
3 15714 15716 15717
3 15717 15716 15705
3 15717 15705 15704
3 15712 15714 15717
3 15712 15717 15713
3 15713 15717 15704
3 15713 15704 15706
3 15718 15719 15720
3 15718 15720 15721
3 15719 15722 15723
3 15719 15723 15720
3 15721 15720 15724
3 15721 15724 15725
3 15720 15723 15726
3 15720 15726 15724
3 15727 15698 15701
3 15727 15701 15728
3 15728 15701 15705
3 15728 15705 15729
3 15722 15727 15728
3 15722 15728 15723
3 15723 15728 15729
3 15723 15729 15726
3 15715 15730 15731
3 15715 15731 15716
3 15730 15732 15733
3 15730 15733 15731
3 15716 15731 15729
3 15716 15729 15705
3 15731 15733 15726
3 15731 15726 15729
3 15734 15735 15736
3 15734 15736 15737
3 15737 15736 15725
3 15737 15725 15724
3 15732 15734 15737
3 15732 15737 15733
3 15733 15737 15724
3 15733 15724 15726
3 15738 15739 15740
3 15738 15740 15741
3 15739 15742 15743
3 15739 15743 15740
3 15741 15740 15744
3 15741 15744 15745
3 15740 15743 15746
3 15740 15746 15744
3 15747 15718 15721
3 15747 15721 15748
3 15748 15721 15725
3 15748 15725 15749
3 15742 15747 15748
3 15742 15748 15743
3 15743 15748 15749
3 15743 15749 15746
3 15735 15750 15751
3 15735 15751 15736
3 15750 15752 15753
3 15750 15753 15751
3 15736 15751 15749
3 15736 15749 15725
3 15751 15753 15746
3 15751 15746 15749
3 15754 15755 15756
3 15754 15756 15757
3 15757 15756 15745
3 15757 15745 15744
3 15752 15754 15757
3 15752 15757 15753
3 15753 15757 15744
3 15753 15744 15746
3 15758 15759 15760
3 15758 15760 15761
3 15759 15762 15763
3 15759 15763 15760
3 15761 15760 15764
3 15761 15764 15765
3 15760 15763 15766
3 15760 15766 15764
3 15767 15738 15741
3 15767 15741 15768
3 15768 15741 15745
3 15768 15745 15769
3 15762 15767 15768
3 15762 15768 15763
3 15763 15768 15769
3 15763 15769 15766
3 15755 15770 15771
3 15755 15771 15756
3 15770 15772 15773
3 15770 15773 15771
3 15756 15771 15769
3 15756 15769 15745
3 15771 15773 15766
3 15771 15766 15769
3 15774 15775 15776
3 15774 15776 15777
3 15777 15776 15765
3 15777 15765 15764
3 15772 15774 15777
3 15772 15777 15773
3 15773 15777 15764
3 15773 15764 15766
3 15498 15778 15779
3 15498 15779 15499
3 15778 15780 15781
3 15778 15781 15779
3 15499 15779 15782
3 15499 15782 15501
3 15779 15781 15783
3 15779 15783 15782
3 15784 15758 15761
3 15784 15761 15785
3 15785 15761 15765
3 15785 15765 15786
3 15780 15784 15785
3 15780 15785 15781
3 15781 15785 15786
3 15781 15786 15783
3 15775 15787 15788
3 15775 15788 15776
3 15787 15789 15790
3 15787 15790 15788
3 15776 15788 15786
3 15776 15786 15765
3 15788 15790 15783
3 15788 15783 15786
3 15791 15503 15506
3 15791 15506 15792
3 15792 15506 15501
3 15792 15501 15782
3 15789 15791 15792
3 15789 15792 15790
3 15790 15792 15782
3 15790 15782 15783
3 14576 14579 15793
3 14576 15793 15794
3 14579 14574 15795
3 14579 15795 15793
3 15794 15793 15796
3 15794 15796 15797
3 15793 15795 15798
3 15793 15798 15796
3 14572 14571 15799
3 14572 15799 15800
3 15800 15799 15801
3 15800 15801 15802
3 14574 14572 15800
3 14574 15800 15795
3 15795 15800 15802
3 15795 15802 15798
3 15803 15804 15805
3 15803 15805 15806
3 15804 15807 15808
3 15804 15808 15805
3 15806 15805 15802
3 15806 15802 15801
3 15805 15808 15798
3 15805 15798 15802
3 15809 15810 15811
3 15809 15811 15812
3 15812 15811 15797
3 15812 15797 15796
3 15807 15809 15812
3 15807 15812 15808
3 15808 15812 15796
3 15808 15796 15798
3 14592 14595 15813
3 14592 15813 15814
3 14595 14590 15815
3 14595 15815 15813
3 15814 15813 15816
3 15814 15816 15817
3 15813 15815 15818
3 15813 15818 15816
3 14588 14576 15794
3 14588 15794 15819
3 15819 15794 15797
3 15819 15797 15820
3 14590 14588 15819
3 14590 15819 15815
3 15815 15819 15820
3 15815 15820 15818
3 15810 15821 15822
3 15810 15822 15811
3 15821 15823 15824
3 15821 15824 15822
3 15811 15822 15820
3 15811 15820 15797
3 15822 15824 15818
3 15822 15818 15820
3 15825 15826 15827
3 15825 15827 15828
3 15828 15827 15817
3 15828 15817 15816
3 15823 15825 15828
3 15823 15828 15824
3 15824 15828 15816
3 15824 15816 15818
3 14608 14611 15829
3 14608 15829 15830
3 14611 14606 15831
3 14611 15831 15829
3 15830 15829 15832
3 15830 15832 15833
3 15829 15831 15834
3 15829 15834 15832
3 14604 14592 15814
3 14604 15814 15835
3 15835 15814 15817
3 15835 15817 15836
3 14606 14604 15835
3 14606 15835 15831
3 15831 15835 15836
3 15831 15836 15834
3 15826 15837 15838
3 15826 15838 15827
3 15837 15839 15840
3 15837 15840 15838
3 15827 15838 15836
3 15827 15836 15817
3 15838 15840 15834
3 15838 15834 15836
3 15841 15842 15843
3 15841 15843 15844
3 15844 15843 15833
3 15844 15833 15832
3 15839 15841 15844
3 15839 15844 15840
3 15840 15844 15832
3 15840 15832 15834
3 14626 14629 15845
3 14626 15845 15846
3 14629 14624 15847
3 14629 15847 15845
3 15846 15845 15848
3 15846 15848 15849
3 15845 15847 15850
3 15845 15850 15848
3 14622 14608 15830
3 14622 15830 15851
3 15851 15830 15833
3 15851 15833 15852
3 14624 14622 15851
3 14624 15851 15847
3 15847 15851 15852
3 15847 15852 15850
3 15842 15853 15854
3 15842 15854 15843
3 15853 15855 15856
3 15853 15856 15854
3 15843 15854 15852
3 15843 15852 15833
3 15854 15856 15850
3 15854 15850 15852
3 15857 15858 15859
3 15857 15859 15860
3 15860 15859 15849
3 15860 15849 15848
3 15855 15857 15860
3 15855 15860 15856
3 15856 15860 15848
3 15856 15848 15850
3 14651 14654 15861
3 14651 15861 15862
3 14654 14649 15863
3 14654 15863 15861
3 15862 15861 15864
3 15862 15864 15865
3 15861 15863 15866
3 15861 15866 15864
3 14647 14646 15867
3 14647 15867 15868
3 15868 15867 15869
3 15868 15869 15870
3 14649 14647 15868
3 14649 15868 15863
3 15863 15868 15870
3 15863 15870 15866
3 15871 15872 15873
3 15871 15873 15874
3 15872 15875 15876
3 15872 15876 15873
3 15874 15873 15870
3 15874 15870 15869
3 15873 15876 15866
3 15873 15866 15870
3 15877 15878 15879
3 15877 15879 15880
3 15880 15879 15865
3 15880 15865 15864
3 15875 15877 15880
3 15875 15880 15876
3 15876 15880 15864
3 15876 15864 15866
3 14671 14674 15881
3 14671 15881 15882
3 14674 14669 15883
3 14674 15883 15881
3 15882 15881 15884
3 15882 15884 15885
3 15881 15883 15886
3 15881 15886 15884
3 14667 14651 15862
3 14667 15862 15887
3 15887 15862 15865
3 15887 15865 15888
3 14669 14667 15887
3 14669 15887 15883
3 15883 15887 15888
3 15883 15888 15886
3 15878 15889 15890
3 15878 15890 15879
3 15889 15891 15892
3 15889 15892 15890
3 15879 15890 15888
3 15879 15888 15865
3 15890 15892 15886
3 15890 15886 15888
3 15893 15894 15895
3 15893 15895 15896
3 15896 15895 15885
3 15896 15885 15884
3 15891 15893 15896
3 15891 15896 15892
3 15892 15896 15884
3 15892 15884 15886
3 14688 14691 15897
3 14688 15897 15898
3 14691 14686 15899
3 14691 15899 15897
3 15898 15897 15900
3 15898 15900 15901
3 15897 15899 15902
3 15897 15902 15900
3 14684 14671 15882
3 14684 15882 15903
3 15903 15882 15885
3 15903 15885 15904
3 14686 14684 15903
3 14686 15903 15899
3 15899 15903 15904
3 15899 15904 15902
3 15894 15905 15906
3 15894 15906 15895
3 15905 15907 15908
3 15905 15908 15906
3 15895 15906 15904
3 15895 15904 15885
3 15906 15908 15902
3 15906 15902 15904
3 15909 15910 15911
3 15909 15911 15912
3 15912 15911 15901
3 15912 15901 15900
3 15907 15909 15912
3 15907 15912 15908
3 15908 15912 15900
3 15908 15900 15902
3 14571 14705 15913
3 14571 15913 15799
3 14705 14702 15914
3 14705 15914 15913
3 15799 15913 15915
3 15799 15915 15801
3 15913 15914 15916
3 15913 15916 15915
3 14700 14688 15898
3 14700 15898 15917
3 15917 15898 15901
3 15917 15901 15918
3 14702 14700 15917
3 14702 15917 15914
3 15914 15917 15918
3 15914 15918 15916
3 15910 15919 15920
3 15910 15920 15911
3 15919 15921 15922
3 15919 15922 15920
3 15911 15920 15918
3 15911 15918 15901
3 15920 15922 15916
3 15920 15916 15918
3 15923 15803 15806
3 15923 15806 15924
3 15924 15806 15801
3 15924 15801 15915
3 15921 15923 15924
3 15921 15924 15922
3 15922 15924 15915
3 15922 15915 15916
3 15925 15926 15927
3 15925 15927 15928
3 15926 15929 15930
3 15926 15930 15927
3 15928 15927 15931
3 15928 15931 15932
3 15927 15930 15933
3 15927 15933 15931
3 15934 15935 15936
3 15934 15936 15937
3 15937 15936 15938
3 15937 15938 15939
3 15929 15934 15937
3 15929 15937 15930
3 15930 15937 15939
3 15930 15939 15933
3 15498 15497 15940
3 15498 15940 15941
3 15497 15492 15942
3 15497 15942 15940
3 15941 15940 15939
3 15941 15939 15938
3 15940 15942 15933
3 15940 15933 15939
3 15489 15488 15943
3 15489 15943 15944
3 15944 15943 15932
3 15944 15932 15931
3 15492 15489 15944
3 15492 15944 15942
3 15942 15944 15931
3 15942 15931 15933
3 15945 15946 15947
3 15945 15947 15948
3 15946 15949 15950
3 15946 15950 15947
3 15948 15947 15951
3 15948 15951 15952
3 15947 15950 15953
3 15947 15953 15951
3 15954 15925 15928
3 15954 15928 15955
3 15955 15928 15932
3 15955 15932 15956
3 15949 15954 15955
3 15949 15955 15950
3 15950 15955 15956
3 15950 15956 15953
3 15488 15522 15957
3 15488 15957 15943
3 15522 15517 15958
3 15522 15958 15957
3 15943 15957 15956
3 15943 15956 15932
3 15957 15958 15953
3 15957 15953 15956
3 15514 15513 15959
3 15514 15959 15960
3 15960 15959 15952
3 15960 15952 15951
3 15517 15514 15960
3 15517 15960 15958
3 15958 15960 15951
3 15958 15951 15953
3 15961 15962 15963
3 15961 15963 15964
3 15962 15965 15966
3 15962 15966 15963
3 15964 15963 15967
3 15964 15967 15968
3 15963 15966 15969
3 15963 15969 15967
3 15970 15945 15948
3 15970 15948 15971
3 15971 15948 15952
3 15971 15952 15972
3 15965 15970 15971
3 15965 15971 15966
3 15966 15971 15972
3 15966 15972 15969
3 15513 15542 15973
3 15513 15973 15959
3 15542 15537 15974
3 15542 15974 15973
3 15959 15973 15972
3 15959 15972 15952
3 15973 15974 15969
3 15973 15969 15972
3 15534 15533 15975
3 15534 15975 15976
3 15976 15975 15968
3 15976 15968 15967
3 15537 15534 15976
3 15537 15976 15974
3 15974 15976 15967
3 15974 15967 15969
3 15977 15978 15979
3 15977 15979 15980
3 15978 15981 15982
3 15978 15982 15979
3 15980 15979 15983
3 15980 15983 15984
3 15979 15982 15985
3 15979 15985 15983
3 15986 15961 15964
3 15986 15964 15987
3 15987 15964 15968
3 15987 15968 15988
3 15981 15986 15987
3 15981 15987 15982
3 15982 15987 15988
3 15982 15988 15985
3 15533 15562 15989
3 15533 15989 15975
3 15562 15557 15990
3 15562 15990 15989
3 15975 15989 15988
3 15975 15988 15968
3 15989 15990 15985
3 15989 15985 15988
3 15554 15553 15991
3 15554 15991 15992
3 15992 15991 15984
3 15992 15984 15983
3 15557 15554 15992
3 15557 15992 15990
3 15990 15992 15983
3 15990 15983 15985
3 15993 15994 15995
3 15993 15995 15996
3 15994 15997 15998
3 15994 15998 15995
3 15996 15995 15999
3 15996 15999 16000
3 15995 15998 16001
3 15995 16001 15999
3 16002 16003 16004
3 16002 16004 16005
3 16005 16004 16006
3 16005 16006 16007
3 15997 16002 16005
3 15997 16005 15998
3 15998 16005 16007
3 15998 16007 16001
3 15583 15582 16008
3 15583 16008 16009
3 15582 15577 16010
3 15582 16010 16008
3 16009 16008 16007
3 16009 16007 16006
3 16008 16010 16001
3 16008 16001 16007
3 15574 15573 16011
3 15574 16011 16012
3 16012 16011 16000
3 16012 16000 15999
3 15577 15574 16012
3 15577 16012 16010
3 16010 16012 15999
3 16010 15999 16001
3 16013 16014 16015
3 16013 16015 16016
3 16014 16017 16018
3 16014 16018 16015
3 16016 16015 16019
3 16016 16019 16020
3 16015 16018 16021
3 16015 16021 16019
3 16022 15993 15996
3 16022 15996 16023
3 16023 15996 16000
3 16023 16000 16024
3 16017 16022 16023
3 16017 16023 16018
3 16018 16023 16024
3 16018 16024 16021
3 15573 15607 16025
3 15573 16025 16011
3 15607 15602 16026
3 15607 16026 16025
3 16011 16025 16024
3 16011 16024 16000
3 16025 16026 16021
3 16025 16021 16024
3 15599 15598 16027
3 15599 16027 16028
3 16028 16027 16020
3 16028 16020 16019
3 15602 15599 16028
3 15602 16028 16026
3 16026 16028 16019
3 16026 16019 16021
3 16029 16030 16031
3 16029 16031 16032
3 16030 16033 16034
3 16030 16034 16031
3 16032 16031 16035
3 16032 16035 16036
3 16031 16034 16037
3 16031 16037 16035
3 16038 16013 16016
3 16038 16016 16039
3 16039 16016 16020
3 16039 16020 16040
3 16033 16038 16039
3 16033 16039 16034
3 16034 16039 16040
3 16034 16040 16037
3 15598 15627 16041
3 15598 16041 16027
3 15627 15622 16042
3 15627 16042 16041
3 16027 16041 16040
3 16027 16040 16020
3 16041 16042 16037
3 16041 16037 16040
3 15619 15618 16043
3 15619 16043 16044
3 16044 16043 16036
3 16044 16036 16035
3 15622 15619 16044
3 15622 16044 16042
3 16042 16044 16035
3 16042 16035 16037
3 16045 16046 16047
3 16045 16047 16048
3 16046 16049 16050
3 16046 16050 16047
3 16048 16047 16051
3 16048 16051 16052
3 16047 16050 16053
3 16047 16053 16051
3 16054 16029 16032
3 16054 16032 16055
3 16055 16032 16036
3 16055 16036 16056
3 16049 16054 16055
3 16049 16055 16050
3 16050 16055 16056
3 16050 16056 16053
3 15618 15647 16057
3 15618 16057 16043
3 15647 15642 16058
3 15647 16058 16057
3 16043 16057 16056
3 16043 16056 16036
3 16057 16058 16053
3 16057 16053 16056
3 15639 15638 16059
3 15639 16059 16060
3 16060 16059 16052
3 16060 16052 16051
3 15642 15639 16060
3 15642 16060 16058
3 16058 16060 16051
3 16058 16051 16053
3 16061 16062 16063
3 16061 16063 16064
3 16062 16065 16066
3 16062 16066 16063
3 16064 16063 16067
3 16064 16067 16068
3 16063 16066 16069
3 16063 16069 16067
3 16070 16045 16048
3 16070 16048 16071
3 16071 16048 16052
3 16071 16052 16072
3 16065 16070 16071
3 16065 16071 16066
3 16066 16071 16072
3 16066 16072 16069
3 15638 15667 16073
3 15638 16073 16059
3 15667 15662 16074
3 15667 16074 16073
3 16059 16073 16072
3 16059 16072 16052
3 16073 16074 16069
3 16073 16069 16072
3 15659 15658 16075
3 15659 16075 16076
3 16076 16075 16068
3 16076 16068 16067
3 15662 15659 16076
3 15662 16076 16074
3 16074 16076 16067
3 16074 16067 16069
3 16077 16078 16079
3 16077 16079 16080
3 16078 16081 16082
3 16078 16082 16079
3 16080 16079 16083
3 16080 16083 16084
3 16079 16082 16085
3 16079 16085 16083
3 16086 16061 16064
3 16086 16064 16087
3 16087 16064 16068
3 16087 16068 16088
3 16081 16086 16087
3 16081 16087 16082
3 16082 16087 16088
3 16082 16088 16085
3 15658 15687 16089
3 15658 16089 16075
3 15687 15682 16090
3 15687 16090 16089
3 16075 16089 16088
3 16075 16088 16068
3 16089 16090 16085
3 16089 16085 16088
3 15679 15678 16091
3 15679 16091 16092
3 16092 16091 16084
3 16092 16084 16083
3 15682 15679 16092
3 15682 16092 16090
3 16090 16092 16083
3 16090 16083 16085
3 16093 16094 16095
3 16093 16095 16096
3 16094 16097 16098
3 16094 16098 16095
3 16096 16095 16099
3 16096 16099 16100
3 16095 16098 16101
3 16095 16101 16099
3 16102 16077 16080
3 16102 16080 16103
3 16103 16080 16084
3 16103 16084 16104
3 16097 16102 16103
3 16097 16103 16098
3 16098 16103 16104
3 16098 16104 16101
3 15678 15707 16105
3 15678 16105 16091
3 15707 15702 16106
3 15707 16106 16105
3 16091 16105 16104
3 16091 16104 16084
3 16105 16106 16101
3 16105 16101 16104
3 15699 15698 16107
3 15699 16107 16108
3 16108 16107 16100
3 16108 16100 16099
3 15702 15699 16108
3 15702 16108 16106
3 16106 16108 16099
3 16106 16099 16101
3 16109 16110 16111
3 16109 16111 16112
3 16110 16113 16114
3 16110 16114 16111
3 16112 16111 16115
3 16112 16115 16116
3 16111 16114 16117
3 16111 16117 16115
3 16118 16093 16096
3 16118 16096 16119
3 16119 16096 16100
3 16119 16100 16120
3 16113 16118 16119
3 16113 16119 16114
3 16114 16119 16120
3 16114 16120 16117
3 15698 15727 16121
3 15698 16121 16107
3 15727 15722 16122
3 15727 16122 16121
3 16107 16121 16120
3 16107 16120 16100
3 16121 16122 16117
3 16121 16117 16120
3 15719 15718 16123
3 15719 16123 16124
3 16124 16123 16116
3 16124 16116 16115
3 15722 15719 16124
3 15722 16124 16122
3 16122 16124 16115
3 16122 16115 16117
3 16125 16126 16127
3 16125 16127 16128
3 16126 16129 16130
3 16126 16130 16127
3 16128 16127 16131
3 16128 16131 16132
3 16127 16130 16133
3 16127 16133 16131
3 16134 16109 16112
3 16134 16112 16135
3 16135 16112 16116
3 16135 16116 16136
3 16129 16134 16135
3 16129 16135 16130
3 16130 16135 16136
3 16130 16136 16133
3 15718 15747 16137
3 15718 16137 16123
3 15747 15742 16138
3 15747 16138 16137
3 16123 16137 16136
3 16123 16136 16116
3 16137 16138 16133
3 16137 16133 16136
3 15739 15738 16139
3 15739 16139 16140
3 16140 16139 16132
3 16140 16132 16131
3 15742 15739 16140
3 15742 16140 16138
3 16138 16140 16131
3 16138 16131 16133
3 16141 16142 16143
3 16141 16143 16144
3 16142 16145 16146
3 16142 16146 16143
3 16144 16143 16147
3 16144 16147 16148
3 16143 16146 16149
3 16143 16149 16147
3 16150 16125 16128
3 16150 16128 16151
3 16151 16128 16132
3 16151 16132 16152
3 16145 16150 16151
3 16145 16151 16146
3 16146 16151 16152
3 16146 16152 16149
3 15738 15767 16153
3 15738 16153 16139
3 15767 15762 16154
3 15767 16154 16153
3 16139 16153 16152
3 16139 16152 16132
3 16153 16154 16149
3 16153 16149 16152
3 15759 15758 16155
3 15759 16155 16156
3 16156 16155 16148
3 16156 16148 16147
3 15762 15759 16156
3 15762 16156 16154
3 16154 16156 16147
3 16154 16147 16149
3 15935 16157 16158
3 15935 16158 15936
3 16157 16159 16160
3 16157 16160 16158
3 15936 16158 16161
3 15936 16161 15938
3 16158 16160 16162
3 16158 16162 16161
3 16163 16141 16144
3 16163 16144 16164
3 16164 16144 16148
3 16164 16148 16165
3 16159 16163 16164
3 16159 16164 16160
3 16160 16164 16165
3 16160 16165 16162
3 15758 15784 16166
3 15758 16166 16155
3 15784 15780 16167
3 15784 16167 16166
3 16155 16166 16165
3 16155 16165 16148
3 16166 16167 16162
3 16166 16162 16165
3 15778 15498 15941
3 15778 15941 16168
3 16168 15941 15938
3 16168 15938 16161
3 15780 15778 16168
3 15780 16168 16167
3 16167 16168 16161
3 16167 16161 16162
3 16169 16170 16171
3 16169 16171 16172
3 16170 16173 16174
3 16170 16174 16171
3 16172 16171 16175
3 16172 16175 16176
3 16171 16174 16177
3 16171 16177 16175
3 16178 16179 16180
3 16178 16180 16181
3 16181 16180 16182
3 16181 16182 16183
3 16173 16178 16181
3 16173 16181 16174
3 16174 16181 16183
3 16174 16183 16177
3 16184 16185 16186
3 16184 16186 16187
3 16185 16188 16189
3 16185 16189 16186
3 16187 16186 16183
3 16187 16183 16182
3 16186 16189 16177
3 16186 16177 16183
3 16190 16191 16192
3 16190 16192 16193
3 16193 16192 16176
3 16193 16176 16175
3 16188 16190 16193
3 16188 16193 16189
3 16189 16193 16175
3 16189 16175 16177
3 16191 16190 16194
3 16191 16194 16195
3 16190 16188 16196
3 16190 16196 16194
3 16195 16194 16197
3 16195 16197 16198
3 16194 16196 16199
3 16194 16199 16197
3 16185 16184 16200
3 16185 16200 16201
3 16201 16200 16202
3 16201 16202 16203
3 16188 16185 16201
3 16188 16201 16196
3 16196 16201 16203
3 16196 16203 16199
3 16204 16205 16206
3 16204 16206 16207
3 16205 16208 16209
3 16205 16209 16206
3 16207 16206 16203
3 16207 16203 16202
3 16206 16209 16199
3 16206 16199 16203
3 16210 16211 16212
3 16210 16212 16213
3 16213 16212 16198
3 16213 16198 16197
3 16208 16210 16213
3 16208 16213 16209
3 16209 16213 16197
3 16209 16197 16199
3 16214 16215 16216
3 16214 16216 16217
3 16215 16218 16219
3 16215 16219 16216
3 16217 16216 16220
3 16217 16220 16221
3 16216 16219 16222
3 16216 16222 16220
3 16223 16224 16225
3 16223 16225 16226
3 16226 16225 16227
3 16226 16227 16228
3 16218 16223 16226
3 16218 16226 16219
3 16219 16226 16228
3 16219 16228 16222
3 16229 16230 16231
3 16229 16231 16232
3 16230 16233 16234
3 16230 16234 16231
3 16232 16231 16228
3 16232 16228 16227
3 16231 16234 16222
3 16231 16222 16228
3 16235 16236 16237
3 16235 16237 16238
3 16238 16237 16221
3 16238 16221 16220
3 16233 16235 16238
3 16233 16238 16234
3 16234 16238 16220
3 16234 16220 16222
3 16239 16240 16241
3 16239 16241 16242
3 16240 16243 16244
3 16240 16244 16241
3 16242 16241 16245
3 16242 16245 16246
3 16241 16244 16247
3 16241 16247 16245
3 16248 16214 16217
3 16248 16217 16249
3 16249 16217 16221
3 16249 16221 16250
3 16243 16248 16249
3 16243 16249 16244
3 16244 16249 16250
3 16244 16250 16247
3 16236 16251 16252
3 16236 16252 16237
3 16251 16253 16254
3 16251 16254 16252
3 16237 16252 16250
3 16237 16250 16221
3 16252 16254 16247
3 16252 16247 16250
3 16255 16256 16257
3 16255 16257 16258
3 16258 16257 16246
3 16258 16246 16245
3 16253 16255 16258
3 16253 16258 16254
3 16254 16258 16245
3 16254 16245 16247
3 16259 16260 16261
3 16259 16261 16262
3 16260 16263 16264
3 16260 16264 16261
3 16262 16261 16265
3 16262 16265 16266
3 16261 16264 16267
3 16261 16267 16265
3 16268 16239 16242
3 16268 16242 16269
3 16269 16242 16246
3 16269 16246 16270
3 16263 16268 16269
3 16263 16269 16264
3 16264 16269 16270
3 16264 16270 16267
3 16256 16271 16272
3 16256 16272 16257
3 16271 16273 16274
3 16271 16274 16272
3 16257 16272 16270
3 16257 16270 16246
3 16272 16274 16267
3 16272 16267 16270
3 16275 16276 16277
3 16275 16277 16278
3 16278 16277 16266
3 16278 16266 16265
3 16273 16275 16278
3 16273 16278 16274
3 16274 16278 16265
3 16274 16265 16267
3 16279 16280 16281
3 16279 16281 16282
3 16280 16283 16284
3 16280 16284 16281
3 16282 16281 16285
3 16282 16285 16286
3 16281 16284 16287
3 16281 16287 16285
3 16288 16259 16262
3 16288 16262 16289
3 16289 16262 16266
3 16289 16266 16290
3 16283 16288 16289
3 16283 16289 16284
3 16284 16289 16290
3 16284 16290 16287
3 16276 16291 16292
3 16276 16292 16277
3 16291 16293 16294
3 16291 16294 16292
3 16277 16292 16290
3 16277 16290 16266
3 16292 16294 16287
3 16292 16287 16290
3 16295 16296 16297
3 16295 16297 16298
3 16298 16297 16286
3 16298 16286 16285
3 16293 16295 16298
3 16293 16298 16294
3 16294 16298 16285
3 16294 16285 16287
3 16299 16300 16301
3 16299 16301 16302
3 16300 16303 16304
3 16300 16304 16301
3 16302 16301 16305
3 16302 16305 16306
3 16301 16304 16307
3 16301 16307 16305
3 16308 16279 16282
3 16308 16282 16309
3 16309 16282 16286
3 16309 16286 16310
3 16303 16308 16309
3 16303 16309 16304
3 16304 16309 16310
3 16304 16310 16307
3 16296 16311 16312
3 16296 16312 16297
3 16311 16313 16314
3 16311 16314 16312
3 16297 16312 16310
3 16297 16310 16286
3 16312 16314 16307
3 16312 16307 16310
3 16315 16316 16317
3 16315 16317 16318
3 16318 16317 16306
3 16318 16306 16305
3 16313 16315 16318
3 16313 16318 16314
3 16314 16318 16305
3 16314 16305 16307
3 16319 16320 16321
3 16319 16321 16322
3 16320 16323 16324
3 16320 16324 16321
3 16322 16321 16325
3 16322 16325 16326
3 16321 16324 16327
3 16321 16327 16325
3 16328 16299 16302
3 16328 16302 16329
3 16329 16302 16306
3 16329 16306 16330
3 16323 16328 16329
3 16323 16329 16324
3 16324 16329 16330
3 16324 16330 16327
3 16316 16331 16332
3 16316 16332 16317
3 16331 16333 16334
3 16331 16334 16332
3 16317 16332 16330
3 16317 16330 16306
3 16332 16334 16327
3 16332 16327 16330
3 16335 16336 16337
3 16335 16337 16338
3 16338 16337 16326
3 16338 16326 16325
3 16333 16335 16338
3 16333 16338 16334
3 16334 16338 16325
3 16334 16325 16327
3 16339 16340 16341
3 16339 16341 16342
3 16340 16343 16344
3 16340 16344 16341
3 16342 16341 16345
3 16342 16345 16346
3 16341 16344 16347
3 16341 16347 16345
3 16348 16319 16322
3 16348 16322 16349
3 16349 16322 16326
3 16349 16326 16350
3 16343 16348 16349
3 16343 16349 16344
3 16344 16349 16350
3 16344 16350 16347
3 16336 16351 16352
3 16336 16352 16337
3 16351 16353 16354
3 16351 16354 16352
3 16337 16352 16350
3 16337 16350 16326
3 16352 16354 16347
3 16352 16347 16350
3 16355 16356 16357
3 16355 16357 16358
3 16358 16357 16346
3 16358 16346 16345
3 16353 16355 16358
3 16353 16358 16354
3 16354 16358 16345
3 16354 16345 16347
3 16359 16360 16361
3 16359 16361 16362
3 16360 16363 16364
3 16360 16364 16361
3 16362 16361 16365
3 16362 16365 16366
3 16361 16364 16367
3 16361 16367 16365
3 16368 16339 16342
3 16368 16342 16369
3 16369 16342 16346
3 16369 16346 16370
3 16363 16368 16369
3 16363 16369 16364
3 16364 16369 16370
3 16364 16370 16367
3 16356 16371 16372
3 16356 16372 16357
3 16371 16373 16374
3 16371 16374 16372
3 16357 16372 16370
3 16357 16370 16346
3 16372 16374 16367
3 16372 16367 16370
3 16375 16376 16377
3 16375 16377 16378
3 16378 16377 16366
3 16378 16366 16365
3 16373 16375 16378
3 16373 16378 16374
3 16374 16378 16365
3 16374 16365 16367
3 16379 16380 16381
3 16379 16381 16382
3 16380 16383 16384
3 16380 16384 16381
3 16382 16381 16385
3 16382 16385 16386
3 16381 16384 16387
3 16381 16387 16385
3 16388 16359 16362
3 16388 16362 16389
3 16389 16362 16366
3 16389 16366 16390
3 16383 16388 16389
3 16383 16389 16384
3 16384 16389 16390
3 16384 16390 16387
3 16376 16391 16392
3 16376 16392 16377
3 16391 16393 16394
3 16391 16394 16392
3 16377 16392 16390
3 16377 16390 16366
3 16392 16394 16387
3 16392 16387 16390
3 16395 16396 16397
3 16395 16397 16398
3 16398 16397 16386
3 16398 16386 16385
3 16393 16395 16398
3 16393 16398 16394
3 16394 16398 16385
3 16394 16385 16387
3 16399 16400 16401
3 16399 16401 16402
3 16400 16403 16404
3 16400 16404 16401
3 16402 16401 16405
3 16402 16405 16406
3 16401 16404 16407
3 16401 16407 16405
3 16408 16379 16382
3 16408 16382 16409
3 16409 16382 16386
3 16409 16386 16410
3 16403 16408 16409
3 16403 16409 16404
3 16404 16409 16410
3 16404 16410 16407
3 16396 16411 16412
3 16396 16412 16397
3 16411 16413 16414
3 16411 16414 16412
3 16397 16412 16410
3 16397 16410 16386
3 16412 16414 16407
3 16412 16407 16410
3 16415 16416 16417
3 16415 16417 16418
3 16418 16417 16406
3 16418 16406 16405
3 16413 16415 16418
3 16413 16418 16414
3 16414 16418 16405
3 16414 16405 16407
3 16419 16420 16421
3 16419 16421 16422
3 16420 16423 16424
3 16420 16424 16421
3 16422 16421 16425
3 16422 16425 16426
3 16421 16424 16427
3 16421 16427 16425
3 16428 16399 16402
3 16428 16402 16429
3 16429 16402 16406
3 16429 16406 16430
3 16423 16428 16429
3 16423 16429 16424
3 16424 16429 16430
3 16424 16430 16427
3 16416 16431 16432
3 16416 16432 16417
3 16431 16433 16434
3 16431 16434 16432
3 16417 16432 16430
3 16417 16430 16406
3 16432 16434 16427
3 16432 16427 16430
3 16435 16436 16437
3 16435 16437 16438
3 16438 16437 16426
3 16438 16426 16425
3 16433 16435 16438
3 16433 16438 16434
3 16434 16438 16425
3 16434 16425 16427
3 16439 16440 16441
3 16439 16441 16442
3 16440 16443 16444
3 16440 16444 16441
3 16442 16441 16445
3 16442 16445 16446
3 16441 16444 16447
3 16441 16447 16445
3 16448 16419 16422
3 16448 16422 16449
3 16449 16422 16426
3 16449 16426 16450
3 16443 16448 16449
3 16443 16449 16444
3 16444 16449 16450
3 16444 16450 16447
3 16436 16451 16452
3 16436 16452 16437
3 16451 16453 16454
3 16451 16454 16452
3 16437 16452 16450
3 16437 16450 16426
3 16452 16454 16447
3 16452 16447 16450
3 16455 16456 16457
3 16455 16457 16458
3 16458 16457 16446
3 16458 16446 16445
3 16453 16455 16458
3 16453 16458 16454
3 16454 16458 16445
3 16454 16445 16447
3 16459 16460 16461
3 16459 16461 16462
3 16460 16463 16464
3 16460 16464 16461
3 16462 16461 16465
3 16462 16465 16466
3 16461 16464 16467
3 16461 16467 16465
3 16468 16439 16442
3 16468 16442 16469
3 16469 16442 16446
3 16469 16446 16470
3 16463 16468 16469
3 16463 16469 16464
3 16464 16469 16470
3 16464 16470 16467
3 16456 16471 16472
3 16456 16472 16457
3 16471 16473 16474
3 16471 16474 16472
3 16457 16472 16470
3 16457 16470 16446
3 16472 16474 16467
3 16472 16467 16470
3 16475 16476 16477
3 16475 16477 16478
3 16478 16477 16466
3 16478 16466 16465
3 16473 16475 16478
3 16473 16478 16474
3 16474 16478 16465
3 16474 16465 16467
3 16479 16480 16481
3 16479 16481 16482
3 16480 16483 16484
3 16480 16484 16481
3 16482 16481 16485
3 16482 16485 16486
3 16481 16484 16487
3 16481 16487 16485
3 16488 16459 16462
3 16488 16462 16489
3 16489 16462 16466
3 16489 16466 16490
3 16483 16488 16489
3 16483 16489 16484
3 16484 16489 16490
3 16484 16490 16487
3 16476 16491 16492
3 16476 16492 16477
3 16491 16493 16494
3 16491 16494 16492
3 16477 16492 16490
3 16477 16490 16466
3 16492 16494 16487
3 16492 16487 16490
3 16495 16496 16497
3 16495 16497 16498
3 16498 16497 16486
3 16498 16486 16485
3 16493 16495 16498
3 16493 16498 16494
3 16494 16498 16485
3 16494 16485 16487
3 16224 16499 16500
3 16224 16500 16225
3 16499 16501 16502
3 16499 16502 16500
3 16225 16500 16503
3 16225 16503 16227
3 16500 16502 16504
3 16500 16504 16503
3 16505 16479 16482
3 16505 16482 16506
3 16506 16482 16486
3 16506 16486 16507
3 16501 16505 16506
3 16501 16506 16502
3 16502 16506 16507
3 16502 16507 16504
3 16496 16508 16509
3 16496 16509 16497
3 16508 16510 16511
3 16508 16511 16509
3 16497 16509 16507
3 16497 16507 16486
3 16509 16511 16504
3 16509 16504 16507
3 16512 16229 16232
3 16512 16232 16513
3 16513 16232 16227
3 16513 16227 16503
3 16510 16512 16513
3 16510 16513 16511
3 16511 16513 16503
3 16511 16503 16504
3 16514 16515 16516
3 16514 16516 16517
3 16515 16518 16519
3 16515 16519 16516
3 16517 16516 16520
3 16517 16520 16521
3 16516 16519 16522
3 16516 16522 16520
3 16523 16524 16525
3 16523 16525 16526
3 16526 16525 16527
3 16526 16527 16528
3 16518 16523 16526
3 16518 16526 16519
3 16519 16526 16528
3 16519 16528 16522
3 16529 16530 16531
3 16529 16531 16532
3 16530 16533 16534
3 16530 16534 16531
3 16532 16531 16528
3 16532 16528 16527
3 16531 16534 16522
3 16531 16522 16528
3 16535 16536 16537
3 16535 16537 16538
3 16538 16537 16521
3 16538 16521 16520
3 16533 16535 16538
3 16533 16538 16534
3 16534 16538 16520
3 16534 16520 16522
3 16524 16539 16540
3 16524 16540 16525
3 16539 16541 16542
3 16539 16542 16540
3 16525 16540 16543
3 16525 16543 16527
3 16540 16542 16544
3 16540 16544 16543
3 16545 16546 16547
3 16545 16547 16548
3 16548 16547 16549
3 16548 16549 16550
3 16541 16545 16548
3 16541 16548 16542
3 16542 16548 16550
3 16542 16550 16544
3 16551 16552 16553
3 16551 16553 16554
3 16552 16555 16556
3 16552 16556 16553
3 16554 16553 16550
3 16554 16550 16549
3 16553 16556 16544
3 16553 16544 16550
3 16557 16529 16532
3 16557 16532 16558
3 16558 16532 16527
3 16558 16527 16543
3 16555 16557 16558
3 16555 16558 16556
3 16556 16558 16543
3 16556 16543 16544
3 16546 16559 16560
3 16546 16560 16547
3 16559 16561 16562
3 16559 16562 16560
3 16547 16560 16563
3 16547 16563 16549
3 16560 16562 16564
3 16560 16564 16563
3 16565 16566 16567
3 16565 16567 16568
3 16568 16567 16569
3 16568 16569 16570
3 16561 16565 16568
3 16561 16568 16562
3 16562 16568 16570
3 16562 16570 16564
3 16571 16572 16573
3 16571 16573 16574
3 16572 16575 16576
3 16572 16576 16573
3 16574 16573 16570
3 16574 16570 16569
3 16573 16576 16564
3 16573 16564 16570
3 16577 16551 16554
3 16577 16554 16578
3 16578 16554 16549
3 16578 16549 16563
3 16575 16577 16578
3 16575 16578 16576
3 16576 16578 16563
3 16576 16563 16564
3 16579 16580 16581
3 16579 16581 16582
3 16580 16583 16584
3 16580 16584 16581
3 16582 16581 16585
3 16582 16585 16586
3 16581 16584 16587
3 16581 16587 16585
3 16588 16589 16590
3 16588 16590 16591
3 16591 16590 16592
3 16591 16592 16593
3 16583 16588 16591
3 16583 16591 16584
3 16584 16591 16593
3 16584 16593 16587
3 16594 16595 16596
3 16594 16596 16597
3 16595 16598 16599
3 16595 16599 16596
3 16597 16596 16593
3 16597 16593 16592
3 16596 16599 16587
3 16596 16587 16593
3 16600 16601 16602
3 16600 16602 16603
3 16603 16602 16586
3 16603 16586 16585
3 16598 16600 16603
3 16598 16603 16599
3 16599 16603 16585
3 16599 16585 16587
3 16589 16604 16605
3 16589 16605 16590
3 16604 16606 16607
3 16604 16607 16605
3 16590 16605 16608
3 16590 16608 16592
3 16605 16607 16609
3 16605 16609 16608
3 16610 16514 16517
3 16610 16517 16611
3 16611 16517 16521
3 16611 16521 16612
3 16606 16610 16611
3 16606 16611 16607
3 16607 16611 16612
3 16607 16612 16609
3 16536 16613 16614
3 16536 16614 16537
3 16613 16615 16616
3 16613 16616 16614
3 16537 16614 16612
3 16537 16612 16521
3 16614 16616 16609
3 16614 16609 16612
3 16617 16594 16597
3 16617 16597 16618
3 16618 16597 16592
3 16618 16592 16608
3 16615 16617 16618
3 16615 16618 16616
3 16616 16618 16608
3 16616 16608 16609
3 16536 16535 16619
3 16536 16619 16620
3 16535 16533 16621
3 16535 16621 16619
3 16620 16619 16622
3 16620 16622 16623
3 16619 16621 16624
3 16619 16624 16622
3 16530 16529 16625
3 16530 16625 16626
3 16626 16625 16627
3 16626 16627 16628
3 16533 16530 16626
3 16533 16626 16621
3 16621 16626 16628
3 16621 16628 16624
3 16629 16630 16631
3 16629 16631 16632
3 16630 16633 16634
3 16630 16634 16631
3 16632 16631 16628
3 16632 16628 16627
3 16631 16634 16624
3 16631 16624 16628
3 16635 16636 16637
3 16635 16637 16638
3 16638 16637 16623
3 16638 16623 16622
3 16633 16635 16638
3 16633 16638 16634
3 16634 16638 16622
3 16634 16622 16624
3 16529 16557 16639
3 16529 16639 16625
3 16557 16555 16640
3 16557 16640 16639
3 16625 16639 16641
3 16625 16641 16627
3 16639 16640 16642
3 16639 16642 16641
3 16552 16551 16643
3 16552 16643 16644
3 16644 16643 16645
3 16644 16645 16646
3 16555 16552 16644
3 16555 16644 16640
3 16640 16644 16646
3 16640 16646 16642
3 16647 16648 16649
3 16647 16649 16650
3 16648 16651 16652
3 16648 16652 16649
3 16650 16649 16646
3 16650 16646 16645
3 16649 16652 16642
3 16649 16642 16646
3 16653 16629 16632
3 16653 16632 16654
3 16654 16632 16627
3 16654 16627 16641
3 16651 16653 16654
3 16651 16654 16652
3 16652 16654 16641
3 16652 16641 16642
3 16551 16577 16655
3 16551 16655 16643
3 16577 16575 16656
3 16577 16656 16655
3 16643 16655 16657
3 16643 16657 16645
3 16655 16656 16658
3 16655 16658 16657
3 16572 16571 16659
3 16572 16659 16660
3 16660 16659 16661
3 16660 16661 16662
3 16575 16572 16660
3 16575 16660 16656
3 16656 16660 16662
3 16656 16662 16658
3 16663 16664 16665
3 16663 16665 16666
3 16664 16667 16668
3 16664 16668 16665
3 16666 16665 16662
3 16666 16662 16661
3 16665 16668 16658
3 16665 16658 16662
3 16669 16647 16650
3 16669 16650 16670
3 16670 16650 16645
3 16670 16645 16657
3 16667 16669 16670
3 16667 16670 16668
3 16668 16670 16657
3 16668 16657 16658
3 16601 16600 16671
3 16601 16671 16672
3 16600 16598 16673
3 16600 16673 16671
3 16672 16671 16674
3 16672 16674 16675
3 16671 16673 16676
3 16671 16676 16674
3 16595 16594 16677
3 16595 16677 16678
3 16678 16677 16679
3 16678 16679 16680
3 16598 16595 16678
3 16598 16678 16673
3 16673 16678 16680
3 16673 16680 16676
3 16681 16682 16683
3 16681 16683 16684
3 16682 16685 16686
3 16682 16686 16683
3 16684 16683 16680
3 16684 16680 16679
3 16683 16686 16676
3 16683 16676 16680
3 16687 16688 16689
3 16687 16689 16690
3 16690 16689 16675
3 16690 16675 16674
3 16685 16687 16690
3 16685 16690 16686
3 16686 16690 16674
3 16686 16674 16676
3 16594 16617 16691
3 16594 16691 16677
3 16617 16615 16692
3 16617 16692 16691
3 16677 16691 16693
3 16677 16693 16679
3 16691 16692 16694
3 16691 16694 16693
3 16613 16536 16620
3 16613 16620 16695
3 16695 16620 16623
3 16695 16623 16696
3 16615 16613 16695
3 16615 16695 16692
3 16692 16695 16696
3 16692 16696 16694
3 16636 16697 16698
3 16636 16698 16637
3 16697 16699 16700
3 16697 16700 16698
3 16637 16698 16696
3 16637 16696 16623
3 16698 16700 16694
3 16698 16694 16696
3 16701 16681 16684
3 16701 16684 16702
3 16702 16684 16679
3 16702 16679 16693
3 16699 16701 16702
3 16699 16702 16700
3 16700 16702 16693
3 16700 16693 16694
3 16636 16635 16703
3 16636 16703 16704
3 16635 16633 16705
3 16635 16705 16703
3 16704 16703 16706
3 16704 16706 16707
3 16703 16705 16708
3 16703 16708 16706
3 16630 16629 16709
3 16630 16709 16710
3 16710 16709 16711
3 16710 16711 16712
3 16633 16630 16710
3 16633 16710 16705
3 16705 16710 16712
3 16705 16712 16708
3 16713 16714 16715
3 16713 16715 16716
3 16714 16717 16718
3 16714 16718 16715
3 16716 16715 16712
3 16716 16712 16711
3 16715 16718 16708
3 16715 16708 16712
3 16719 16720 16721
3 16719 16721 16722
3 16722 16721 16707
3 16722 16707 16706
3 16717 16719 16722
3 16717 16722 16718
3 16718 16722 16706
3 16718 16706 16708
3 16629 16653 16723
3 16629 16723 16709
3 16653 16651 16724
3 16653 16724 16723
3 16709 16723 16725
3 16709 16725 16711
3 16723 16724 16726
3 16723 16726 16725
3 16648 16647 16727
3 16648 16727 16728
3 16728 16727 16729
3 16728 16729 16730
3 16651 16648 16728
3 16651 16728 16724
3 16724 16728 16730
3 16724 16730 16726
3 16731 16732 16733
3 16731 16733 16734
3 16732 16735 16736
3 16732 16736 16733
3 16734 16733 16730
3 16734 16730 16729
3 16733 16736 16726
3 16733 16726 16730
3 16737 16713 16716
3 16737 16716 16738
3 16738 16716 16711
3 16738 16711 16725
3 16735 16737 16738
3 16735 16738 16736
3 16736 16738 16725
3 16736 16725 16726
3 16647 16669 16739
3 16647 16739 16727
3 16669 16667 16740
3 16669 16740 16739
3 16727 16739 16741
3 16727 16741 16729
3 16739 16740 16742
3 16739 16742 16741
3 16664 16663 16743
3 16664 16743 16744
3 16744 16743 16745
3 16744 16745 16746
3 16667 16664 16744
3 16667 16744 16740
3 16740 16744 16746
3 16740 16746 16742
3 16747 16748 16749
3 16747 16749 16750
3 16748 16751 16752
3 16748 16752 16749
3 16750 16749 16746
3 16750 16746 16745
3 16749 16752 16742
3 16749 16742 16746
3 16753 16731 16734
3 16753 16734 16754
3 16754 16734 16729
3 16754 16729 16741
3 16751 16753 16754
3 16751 16754 16752
3 16752 16754 16741
3 16752 16741 16742
3 16663 16755 16756
3 16663 16756 16743
3 16755 16757 16758
3 16755 16758 16756
3 16743 16756 16759
3 16743 16759 16745
3 16756 16758 16760
3 16756 16760 16759
3 16761 16762 16763
3 16761 16763 16764
3 16764 16763 16765
3 16764 16765 16766
3 16757 16761 16764
3 16757 16764 16758
3 16758 16764 16766
3 16758 16766 16760
3 16767 16768 16769
3 16767 16769 16770
3 16768 16771 16772
3 16768 16772 16769
3 16770 16769 16766
3 16770 16766 16765
3 16769 16772 16760
3 16769 16760 16766
3 16773 16747 16750
3 16773 16750 16774
3 16774 16750 16745
3 16774 16745 16759
3 16771 16773 16774
3 16771 16774 16772
3 16772 16774 16759
3 16772 16759 16760
3 16775 16776 16777
3 16775 16777 16778
3 16776 16779 16780
3 16776 16780 16777
3 16778 16777 16781
3 16778 16781 16782
3 16777 16780 16783
3 16777 16783 16781
3 16784 16785 16786
3 16784 16786 16787
3 16787 16786 16788
3 16787 16788 16789
3 16779 16784 16787
3 16779 16787 16780
3 16780 16787 16789
3 16780 16789 16783
3 16790 16791 16792
3 16790 16792 16793
3 16791 16794 16795
3 16791 16795 16792
3 16793 16792 16789
3 16793 16789 16788
3 16792 16795 16783
3 16792 16783 16789
3 16796 16797 16798
3 16796 16798 16799
3 16799 16798 16782
3 16799 16782 16781
3 16794 16796 16799
3 16794 16799 16795
3 16795 16799 16781
3 16795 16781 16783
3 16785 16800 16801
3 16785 16801 16786
3 16800 16802 16803
3 16800 16803 16801
3 16786 16801 16804
3 16786 16804 16788
3 16801 16803 16805
3 16801 16805 16804
3 16806 16688 16807
3 16806 16807 16808
3 16808 16807 16809
3 16808 16809 16810
3 16802 16806 16808
3 16802 16808 16803
3 16803 16808 16810
3 16803 16810 16805
3 16811 16812 16813
3 16811 16813 16814
3 16812 16815 16816
3 16812 16816 16813
3 16814 16813 16810
3 16814 16810 16809
3 16813 16816 16805
3 16813 16805 16810
3 16817 16790 16793
3 16817 16793 16818
3 16818 16793 16788
3 16818 16788 16804
3 16815 16817 16818
3 16815 16818 16816
3 16816 16818 16804
3 16816 16804 16805
3 16688 16687 16819
3 16688 16819 16807
3 16687 16685 16820
3 16687 16820 16819
3 16807 16819 16821
3 16807 16821 16809
3 16819 16820 16822
3 16819 16822 16821
3 16682 16681 16823
3 16682 16823 16824
3 16824 16823 16825
3 16824 16825 16826
3 16685 16682 16824
3 16685 16824 16820
3 16820 16824 16826
3 16820 16826 16822
3 16827 16828 16829
3 16827 16829 16830
3 16828 16831 16832
3 16828 16832 16829
3 16830 16829 16826
3 16830 16826 16825
3 16829 16832 16822
3 16829 16822 16826
3 16833 16811 16814
3 16833 16814 16834
3 16834 16814 16809
3 16834 16809 16821
3 16831 16833 16834
3 16831 16834 16832
3 16832 16834 16821
3 16832 16821 16822
3 16681 16701 16835
3 16681 16835 16823
3 16701 16699 16836
3 16701 16836 16835
3 16823 16835 16837
3 16823 16837 16825
3 16835 16836 16838
3 16835 16838 16837
3 16697 16636 16704
3 16697 16704 16839
3 16839 16704 16707
3 16839 16707 16840
3 16699 16697 16839
3 16699 16839 16836
3 16836 16839 16840
3 16836 16840 16838
3 16720 16841 16842
3 16720 16842 16721
3 16841 16843 16844
3 16841 16844 16842
3 16721 16842 16840
3 16721 16840 16707
3 16842 16844 16838
3 16842 16838 16840
3 16845 16827 16830
3 16845 16830 16846
3 16846 16830 16825
3 16846 16825 16837
3 16843 16845 16846
3 16843 16846 16844
3 16844 16846 16837
3 16844 16837 16838
3 16847 16848 16849
3 16847 16849 16850
